-0.25704275 0.50994696 0.66784542
-0.25662534 0.50911887 0.66676092
-0.25620794 0.50829078 0.66567642
-0.25579053 0.50746268 0.66459193
-0.25537313 0.50663459 0.66350743
-0.25495572 0.50580650 0.66242293
-0.25453831 0.50497841 0.66133843
-0.25412091 0.50415032 0.66025393
-0.25370350 0.50332223 0.65916943
-0.25328610 0.50249414 0.65808493
-0.25286869 0.50166605 0.65700043
-0.25245129 0.50083795 0.65591593
-0.25203388 0.50000986 0.65483143
-0.25161647 0.49918177 0.65374693
-0.25119907 0.49835368 0.65266244
-0.30191879 0.57700384 0.75888840
-0.30148797 0.57618050 0.75780553
-0.30105716 0.57535717 0.75672266
-0.30062635 0.57453383 0.75563978
-0.30019553 0.57371049 0.75455691
-0.29976472 0.57288715 0.75347404
-0.29933390 0.57206381 0.75239117
-0.29890309 0.57124047 0.75130829
-0.29847228 0.57041713 0.75022542
-0.29804146 0.56959380 0.74914255
-0.29761065 0.56877046 0.74805967
-0.29717983 0.56794712 0.74697680
-0.29674902 0.56712378 0.74589393
-0.29631821 0.56630044 0.74481105
-0.29588739 0.56547710 0.74372818
-0.29545658 0.56465377 0.74264531
-0.29502576 0.56383043 0.74156243
-0.29459495 0.56300709 0.74047956
-0.29416414 0.56218375 0.73939669
-0.29373332 0.56136041 0.73831381
-0.29330251 0.56053707 0.73723094
-0.29287169 0.55971373 0.73614807
-0.29244088 0.55889040 0.73506519
-0.29201007 0.55806706 0.73398232
-0.29157925 0.55724372 0.73289945
-0.29114844 0.55642038 0.73181657
-0.29071762 0.55559704 0.73073370
-0.29028681 0.55477370 0.72965083
-0.28985600 0.55395036 0.72856795
-0.28942518 0.55312703 0.72748508
-0.28899437 0.55230369 0.72640221
-0.28856355 0.55148035 0.72531933
-0.28813274 0.55065701 0.72423646
-0.28770193 0.54983367 0.72315359
-0.28727111 0.54901033 0.72207071
-0.28684030 0.54818700 0.72098784
-0.28640948 0.54736366 0.71990497
-0.28597867 0.54654032 0.71882209
-0.28554785 0.54571698 0.71773922
-0.28511704 0.54489364 0.71665635
-0.28468623 0.54407030 0.71557347
-0.28425541 0.54324696 0.71449060
-0.28382460 0.54242363 0.71340773
-0.28339378 0.54160029 0.71232485
-0.28296297 0.54077695 0.71124198
-0.28253216 0.53995361 0.71015911
-0.28210134 0.53913027 0.70907624
-0.28167053 0.53830693 0.70799336
-0.28123971 0.53748360 0.70691049
-0.28080890 0.53666026 0.70582762
-0.28037809 0.53583692 0.70474474
-0.27994727 0.53501358 0.70366187
-0.27951646 0.53419024 0.70257900
-0.27908564 0.53336690 0.70149612
-0.27865483 0.53254356 0.70041325
-0.27822402 0.53172023 0.69933038
-0.27779320 0.53089689 0.69824750
-0.27736239 0.53007355 0.69716463
-0.27693157 0.52925021 0.69608176
-0.27650076 0.52842687 0.69499888
-0.27606995 0.52760353 0.69391601
-0.27563913 0.52678020 0.69283314
-0.27520832 0.52595686 0.69175026
-0.27477750 0.52513352 0.69066739
-0.27434669 0.52431018 0.68958452
-0.27391588 0.52348684 0.68850164
-0.27348506 0.52266350 0.68741877
-0.27305425 0.52184016 0.68633590
-0.27262343 0.52101683 0.68525302
-0.27219262 0.52019349 0.68417015
-0.27176181 0.51937015 0.68308728
-0.27133099 0.51854681 0.68200440
-0.27090018 0.51772347 0.68092153
-0.27046936 0.51690013 0.67983866
-0.27003855 0.51607679 0.67875578
-0.26960774 0.51525346 0.67767291
-0.26917692 0.51443012 0.67659004
-0.26874611 0.51360678 0.67550716
-0.26831529 0.51278344 0.67442429
-0.26788448 0.51196010 0.67334142
-0.26745367 0.51113676 0.67225854
-0.26702285 0.51031343 0.67117567
-0.26659204 0.50949009 0.67009280
-0.26616122 0.50866675 0.66900992
-0.26573041 0.50784341 0.66792705
-0.26529960 0.50702007 0.66684418
-0.26486878 0.50619673 0.66576130
-0.26443797 0.50537339 0.66467843
-0.26400715 0.50455006 0.66359556
-0.26357634 0.50372672 0.66251269
-0.26314552 0.50290338 0.66142981
-0.26271471 0.50208004 0.66034694
-0.26228390 0.50125670 0.65926407
-0.26185308 0.50043336 0.65818119
-0.26142227 0.49961003 0.65709832
-0.26099145 0.49878669 0.65601545
-0.26056064 0.49796335 0.65493257
-0.26012983 0.49714001 0.65384970
-0.25969901 0.49631667 0.65276683
-0.25926820 0.49549333 0.65168395
-0.31128492 0.57361486 0.75767255
-0.31084074 0.57279636 0.75659141
-0.31039656 0.57197786 0.75551027
-0.30995239 0.57115935 0.75442913
-0.30950821 0.57034085 0.75334799
-0.30906403 0.56952235 0.75226686
-0.30861985 0.56870384 0.75118572
-0.30817567 0.56788534 0.75010458
-0.30773149 0.56706684 0.74902344
-0.30728731 0.56624834 0.74794230
-0.30684313 0.56542983 0.74686116
-0.30639896 0.56461133 0.74578003
-0.30595478 0.56379283 0.74469889
-0.30551060 0.56297433 0.74361775
-0.30506642 0.56215582 0.74253661
-0.30462224 0.56133732 0.74145547
-0.30417806 0.56051882 0.74037433
-0.30373388 0.55970031 0.73929320
-0.30328970 0.55888181 0.73821206
-0.30284553 0.55806331 0.73713092
-0.30240135 0.55724481 0.73604978
-0.30195717 0.55642630 0.73496864
-0.30151299 0.55560780 0.73388750
-0.30106881 0.55478930 0.73280637
-0.30062463 0.55397080 0.73172523
-0.30018045 0.55315229 0.73064409
-0.29973627 0.55233379 0.72956295
-0.29929210 0.55151529 0.72848181
-0.29884792 0.55069679 0.72740067
-0.29840374 0.54987828 0.72631954
-0.29795956 0.54905978 0.72523840
-0.29751538 0.54824128 0.72415726
-0.29707120 0.54742277 0.72307612
-0.29662702 0.54660427 0.72199498
-0.29618284 0.54578577 0.72091384
-0.29573867 0.54496727 0.71983271
-0.29529449 0.54414876 0.71875157
-0.29485031 0.54333026 0.71767043
-0.29440613 0.54251176 0.71658929
-0.29396195 0.54169326 0.71550815
-0.29351777 0.54087475 0.71442701
-0.29307359 0.54005625 0.71334588
-0.29262941 0.53923775 0.71226474
-0.29218524 0.53841925 0.71118360
-0.29174106 0.53760074 0.71010246
-0.29129688 0.53678224 0.70902132
-0.29085270 0.53596374 0.70794018
-0.29040852 0.53514523 0.70685905
-0.28996434 0.53432673 0.70577791
-0.28952016 0.53350823 0.70469677
-0.28907598 0.53268973 0.70361563
-0.28863181 0.53187122 0.70253449
-0.28818763 0.53105272 0.70145335
-0.28774345 0.53023422 0.70037222
-0.28729927 0.52941572 0.69929108
-0.28685509 0.52859721 0.69820994
-0.28641091 0.52777871 0.69712880
-0.28596673 0.52696021 0.69604766
-0.28552255 0.52614171 0.69496652
-0.28507837 0.52532320 0.69388539
-0.28463420 0.52450470 0.69280425
-0.28419002 0.52368620 0.69172311
-0.28374584 0.52286769 0.69064197
-0.28330166 0.52204919 0.68956083
-0.28285748 0.52123069 0.68847969
-0.28241330 0.52041219 0.68739856
-0.28196912 0.51959368 0.68631742
-0.28152494 0.51877518 0.68523628
-0.28108077 0.51795668 0.68415514
-0.28063659 0.51713818 0.68307400
-0.28019241 0.51631967 0.68199286
-0.27974823 0.51550117 0.68091173
-0.27930405 0.51468267 0.67983059
-0.27885987 0.51386417 0.67874945
-0.27841569 0.51304566 0.67766831
-0.27797151 0.51222716 0.67658717
-0.27752734 0.51140866 0.67550603
-0.27708316 0.51059015 0.67442490
-0.27663898 0.50977165 0.67334376
-0.27619480 0.50895315 0.67226262
-0.27575062 0.50813465 0.67118148
-0.27530644 0.50731614 0.67010034
-0.27486226 0.50649764 0.66901921
-0.27441808 0.50567914 0.66793807
-0.27397391 0.50486064 0.66685693
-0.27352973 0.50404213 0.66577579
-0.27308555 0.50322363 0.66469465
-0.27264137 0.50240513 0.66361351
-0.27219719 0.50158662 0.66253238
-0.27175301 0.50076812 0.66145124
-0.27130883 0.49994962 0.66037010
-0.27086465 0.49913112 0.65928896
-0.27042048 0.49831261 0.65820782
-0.26997630 0.49749411 0.65712668
-0.26953212 0.49667561 0.65604555
-0.26908794 0.49585711 0.65496441
-0.26864376 0.49503860 0.65388327
-0.26819958 0.49422010 0.65280213
-0.26775540 0.49340160 0.65172099
-0.26731122 0.49258310 0.65063985
-0.32061971 0.57016812 0.75638040
-0.32016221 0.56935454 0.75530111
-0.31970472 0.56854095 0.75422181
-0.31924722 0.56772737 0.75314252
-0.31878972 0.56691378 0.75206322
-0.31833222 0.56610020 0.75098393
-0.31787472 0.56528662 0.74990463
-0.31741722 0.56447303 0.74882534
-0.31695972 0.56365945 0.74774605
-0.31650222 0.56284586 0.74666675
-0.31604473 0.56203228 0.74558746
-0.31558723 0.56121869 0.74450816
-0.31512973 0.56040511 0.74342887
-0.31467223 0.55959152 0.74234957
-0.31421473 0.55877794 0.74127028
-0.31375723 0.55796436 0.74019098
-0.31329973 0.55715077 0.73911169
-0.31284223 0.55633719 0.73803239
-0.31238474 0.55552360 0.73695310
-0.31192724 0.55471002 0.73587381
-0.31146974 0.55389643 0.73479451
-0.31101224 0.55308285 0.73371522
-0.31055474 0.55226926 0.73263592
-0.31009724 0.55145568 0.73155663
-0.30963974 0.55064210 0.73047733
-0.30918224 0.54982851 0.72939804
-0.30872475 0.54901493 0.72831874
-0.30826725 0.54820134 0.72723945
-0.30780975 0.54738776 0.72616015
-0.30735225 0.54657417 0.72508086
-0.30689475 0.54576059 0.72400157
-0.30643725 0.54494700 0.72292227
-0.30597975 0.54413342 0.72184298
-0.30552225 0.54331984 0.72076368
-0.30506476 0.54250625 0.71968439
-0.30460726 0.54169267 0.71860509
-0.30414976 0.54087908 0.71752580
-0.30369226 0.54006550 0.71644650
-0.30323476 0.53925191 0.71536721
-0.30277726 0.53843833 0.71428791
-0.30231976 0.53762474 0.71320862
-0.30186226 0.53681116 0.71212933
-0.30140476 0.53599758 0.71105003
-0.30094727 0.53518399 0.70997074
-0.30048977 0.53437041 0.70889144
-0.30003227 0.53355682 0.70781215
-0.29957477 0.53274324 0.70673285
-0.29911727 0.53192965 0.70565356
-0.29865977 0.53111607 0.70457426
-0.29820227 0.53030248 0.70349497
-0.29774477 0.52948890 0.70241567
-0.29728728 0.52867531 0.70133638
-0.29682978 0.52786173 0.70025709
-0.29637228 0.52704815 0.69917779
-0.29591478 0.52623456 0.69809850
-0.29545728 0.52542098 0.69701920
-0.29499978 0.52460739 0.69593991
-0.29454228 0.52379381 0.69486061
-0.29408478 0.52298022 0.69378132
-0.29362729 0.52216664 0.69270202
-0.29316979 0.52135305 0.69162273
-0.29271229 0.52053947 0.69054344
-0.29225479 0.51972589 0.68946414
-0.29179729 0.51891230 0.68838485
-0.29133979 0.51809872 0.68730555
-0.29088229 0.51728513 0.68622626
-0.29042479 0.51647155 0.68514696
-0.28996730 0.51565796 0.68406767
-0.28950980 0.51484438 0.68298837
-0.28905230 0.51403079 0.68190908
-0.28859480 0.51321721 0.68082978
-0.28813730 0.51240363 0.67975049
-0.28767980 0.51159004 0.67867120
-0.28722230 0.51077646 0.67759190
-0.28676480 0.50996287 0.67651261
-0.28630731 0.50914929 0.67543331
-0.28584981 0.50833570 0.67435402
-0.28539231 0.50752212 0.67327472
-0.28493481 0.50670853 0.67219543
-0.28447731 0.50589495 0.67111613
-0.28401981 0.50508137 0.67003684
-0.28356231 0.50426778 0.66895754
-0.28310481 0.50345420 0.66787825
-0.28264732 0.50264061 0.66679896
-0.28218982 0.50182703 0.66571966
-0.28173232 0.50101344 0.66464037
-0.28127482 0.50019986 0.66356107
-0.28081732 0.49938627 0.66248178
-0.28035982 0.49857269 0.66140248
-0.27990232 0.49775911 0.66032319
-0.27944482 0.49694552 0.65924389
-0.27898733 0.49613194 0.65816460
-0.27852983 0.49531835 0.65708530
-0.27807233 0.49450477 0.65600601
-0.27761483 0.49369118 0.65492672
-0.27715733 0.49287760 0.65384742
-0.27669983 0.49206401 0.65276813
-0.27624233 0.49125043 0.65168883
-0.27578483 0.49043685 0.65060954
-0.27532734 0.48962326 0.64953024
-0.32992222 0.56666397 0.75501210
-0.32945145 0.56585539 0.75393476
-0.32898068 0.56504681 0.75285741
-0.32850990 0.56423822 0.75178007
-0.32803913 0.56342964 0.75070273
-0.32756836 0.56262105 0.74962539
-0.32709759 0.56181247 0.74854804
-0.32662681 0.56100388 0.74747070
-0.32615604 0.56019530 0.74639336
-0.32568527 0.55938672 0.74531602
-0.32521449 0.55857813 0.74423868
-0.32474372 0.55776955 0.74316133
-0.32427295 0.55696096 0.74208399
-0.32380218 0.55615238 0.74100665
-0.32333140 0.55534379 0.73992931
-0.32286063 0.55453521 0.73885197
-0.32238986 0.55372663 0.73777462
-0.32191909 0.55291804 0.73669728
-0.32144831 0.55210946 0.73561994
-0.32097754 0.55130087 0.73454260
-0.32050677 0.55049229 0.73346526
-0.32003599 0.54968370 0.73238791
-0.31956522 0.54887512 0.73131057
-0.31909445 0.54806654 0.73023323
-0.31862368 0.54725795 0.72915589
-0.31815290 0.54644937 0.72807855
-0.31768213 0.54564078 0.72700120
-0.31721136 0.54483220 0.72592386
-0.31674059 0.54402361 0.72484652
-0.31626981 0.54321503 0.72376918
-0.31579904 0.54240645 0.72269184
-0.31532827 0.54159786 0.72161449
-0.31485750 0.54078928 0.72053715
-0.31438672 0.53998069 0.71945981
-0.31391595 0.53917211 0.71838247
-0.31344518 0.53836352 0.71730512
-0.31297440 0.53755494 0.71622778
-0.31250363 0.53674636 0.71515044
-0.31203286 0.53593777 0.71407310
-0.31156209 0.53512919 0.71299576
-0.31109131 0.53432060 0.71191841
-0.31062054 0.53351202 0.71084107
-0.31014977 0.53270343 0.70976373
-0.30967900 0.53189485 0.70868639
-0.30920822 0.53108626 0.70760905
-0.30873745 0.53027768 0.70653170
-0.30826668 0.52946910 0.70545436
-0.30779590 0.52866051 0.70437702
-0.30732513 0.52785193 0.70329968
-0.30685436 0.52704334 0.70222234
-0.30638359 0.52623476 0.70114499
-0.30591281 0.52542617 0.70006765
-0.30544204 0.52461759 0.69899031
-0.30497127 0.52380901 0.69791297
-0.30450050 0.52300042 0.69683563
-0.30402972 0.52219184 0.69575828
-0.30355895 0.52138325 0.69468094
-0.30308818 0.52057467 0.69360360
-0.30261740 0.51976608 0.69252626
-0.30214663 0.51895750 0.69144892
-0.30167586 0.51814892 0.69037157
-0.30120509 0.51734033 0.68929423
-0.30073431 0.51653175 0.68821689
-0.30026354 0.51572316 0.68713955
-0.29979277 0.51491458 0.68606220
-0.29932200 0.51410599 0.68498486
-0.29885122 0.51329741 0.68390752
-0.29838045 0.51248883 0.68283018
-0.29790968 0.51168024 0.68175284
-0.29743890 0.51087166 0.68067549
-0.29696813 0.51006307 0.67959815
-0.29649736 0.50925449 0.67852081
-0.29602659 0.50844590 0.67744347
-0.29555581 0.50763732 0.67636613
-0.29508504 0.50682874 0.67528878
-0.29461427 0.50602015 0.67421144
-0.29414350 0.50521157 0.67313410
-0.29367272 0.50440298 0.67205676
-0.29320195 0.50359440 0.67097942
-0.29273118 0.50278581 0.66990207
-0.29226041 0.50197723 0.66882473
-0.29178963 0.50116865 0.66774739
-0.29131886 0.50036006 0.66667005
-0.29084809 0.49955148 0.66559271
-0.29037731 0.49874289 0.66451536
-0.28990654 0.49793431 0.66343802
-0.28943577 0.49712572 0.66236068
-0.28896500 0.49631714 0.66128334
-0.28849422 0.49550856 0.66020599
-0.28802345 0.49469997 0.65912865
-0.28755268 0.49389139 0.65805131
-0.28708191 0.49308280 0.65697397
-0.28661113 0.49227422 0.65589663
-0.28614036 0.49146563 0.65481928
-0.28566959 0.49065705 0.65374194
-0.28519881 0.48984846 0.65266460
-0.28472804 0.48903988 0.65158726
-0.28425727 0.48823130 0.65050992
-0.28378650 0.48742271 0.64943257
-0.28331572 0.48661413 0.64835523
-0.33919151 0.56310277 0.75356777
-0.33870751 0.56229927 0.75249249
-0.33822351 0.56149577 0.75141721
-0.33773951 0.56069226 0.75034193
-0.33725551 0.55988876 0.74926665
-0.33677151 0.55908526 0.74819137
-0.33628752 0.55828175 0.74711609
-0.33580352 0.55747825 0.74604080
-0.33531952 0.55667475 0.74496552
-0.33483552 0.55587125 0.74389024
-0.33435152 0.55506774 0.74281496
-0.33386752 0.55426424 0.74173968
-0.33338352 0.55346074 0.74066440
-0.33289952 0.55265724 0.73958912
-0.33241552 0.55185373 0.73851384
-0.33193152 0.55105023 0.73743856
-0.33144752 0.55024673 0.73636327
-0.33096352 0.54944322 0.73528799
-0.33047952 0.54863972 0.73421271
-0.32999553 0.54783622 0.73313743
-0.32951153 0.54703272 0.73206215
-0.32902753 0.54622921 0.73098687
-0.32854353 0.54542571 0.72991159
-0.32805953 0.54462221 0.72883631
-0.32757553 0.54381871 0.72776103
-0.32709153 0.54301520 0.72668574
-0.32660753 0.54221170 0.72561046
-0.32612353 0.54140820 0.72453518
-0.32563953 0.54060469 0.72345990
-0.32515553 0.53980119 0.72238462
-0.32467153 0.53899769 0.72130934
-0.32418753 0.53819419 0.72023406
-0.32370354 0.53739068 0.71915878
-0.32321954 0.53658718 0.71808349
-0.32273554 0.53578368 0.71700821
-0.32225154 0.53498017 0.71593293
-0.32176754 0.53417667 0.71485765
-0.32128354 0.53337317 0.71378237
-0.32079954 0.53256967 0.71270709
-0.32031554 0.53176616 0.71163181
-0.31983154 0.53096266 0.71055653
-0.31934754 0.53015916 0.70948125
-0.31886354 0.52935566 0.70840596
-0.31837954 0.52855215 0.70733068
-0.31789554 0.52774865 0.70625540
-0.31741155 0.52694515 0.70518012
-0.31692755 0.52614164 0.70410484
-0.31644355 0.52533814 0.70302956
-0.31595955 0.52453464 0.70195428
-0.31547555 0.52373114 0.70087900
-0.31499155 0.52292763 0.69980372
-0.31450755 0.52212413 0.69872843
-0.31402355 0.52132063 0.69765315
-0.31353955 0.52051712 0.69657787
-0.31305555 0.51971362 0.69550259
-0.31257155 0.51891012 0.69442731
-0.31208755 0.51810662 0.69335203
-0.31160355 0.51730311 0.69227675
-0.31111955 0.51649961 0.69120147
-0.31063556 0.51569611 0.69012619
-0.31015156 0.51489261 0.68905090
-0.30966756 0.51408910 0.68797562
-0.30918356 0.51328560 0.68690034
-0.30869956 0.51248210 0.68582506
-0.30821556 0.51167859 0.68474978
-0.30773156 0.51087509 0.68367450
-0.30724756 0.51007159 0.68259922
-0.30676356 0.50926809 0.68152394
-0.30627956 0.50846458 0.68044866
-0.30579556 0.50766108 0.67937337
-0.30531156 0.50685758 0.67829809
-0.30482756 0.50605408 0.67722281
-0.30434357 0.50525057 0.67614753
-0.30385957 0.50444707 0.67507225
-0.30337557 0.50364357 0.67399697
-0.30289157 0.50284006 0.67292169
-0.30240757 0.50203656 0.67184641
-0.30192357 0.50123306 0.67077113
-0.30143957 0.50042956 0.66969584
-0.30095557 0.49962605 0.66862056
-0.30047157 0.49882255 0.66754528
-0.29998757 0.49801905 0.66647000
-0.29950357 0.49721554 0.66539472
-0.29901957 0.49641204 0.66431944
-0.29853557 0.49560854 0.66324416
-0.29805158 0.49480504 0.66216888
-0.29756758 0.49400153 0.66109359
-0.29708358 0.49319803 0.66001831
-0.29659958 0.49239453 0.65894303
-0.29611558 0.49159103 0.65786775
-0.29563158 0.49078752 0.65679247
-0.29514758 0.48998402 0.65571719
-0.29466358 0.48918052 0.65464191
-0.29417958 0.48837701 0.65356663
-0.29369558 0.48757351 0.65249135
-0.29321158 0.48677001 0.65141606
-0.29272758 0.48596651 0.65034078
-0.29224358 0.48516300 0.64926550
-0.29175959 0.48435950 0.64819022
-0.29127559 0.48355600 0.64711494
-0.34842665 0.55948487 0.75204757
-0.34792947 0.55868653 0.75097446
-0.34743229 0.55788819 0.74990135
-0.34693512 0.55708985 0.74882824
-0.34643794 0.55629151 0.74775512
-0.34594076 0.55549317 0.74668201
-0.34544359 0.55469483 0.74560890
-0.34494641 0.55389649 0.74453579
-0.34444923 0.55309815 0.74346268
-0.34395205 0.55229981 0.74238956
-0.34345488 0.55150147 0.74131645
-0.34295770 0.55070313 0.74024334
-0.34246052 0.54990479 0.73917023
-0.34196335 0.54910645 0.73809712
-0.34146617 0.54830811 0.73702401
-0.34096899 0.54750977 0.73595089
-0.34047182 0.54671143 0.73487778
-0.33997464 0.54591308 0.73380467
-0.33947746 0.54511474 0.73273156
-0.33898028 0.54431640 0.73165845
-0.33848311 0.54351806 0.73058533
-0.33798593 0.54271972 0.72951222
-0.33748875 0.54192138 0.72843911
-0.33699158 0.54112304 0.72736600
-0.33649440 0.54032470 0.72629289
-0.33599722 0.53952636 0.72521977
-0.33550004 0.53872802 0.72414666
-0.33500287 0.53792968 0.72307355
-0.33450569 0.53713134 0.72200044
-0.33400851 0.53633300 0.72092733
-0.33351134 0.53553466 0.71985421
-0.33301416 0.53473632 0.71878110
-0.33251698 0.53393798 0.71770799
-0.33201981 0.53313964 0.71663488
-0.33152263 0.53234130 0.71556177
-0.33102545 0.53154296 0.71448865
-0.33052827 0.53074462 0.71341554
-0.33003110 0.52994628 0.71234243
-0.32953392 0.52914794 0.71126932
-0.32903674 0.52834960 0.71019621
-0.32853957 0.52755126 0.70912310
-0.32804239 0.52675292 0.70804998
-0.32754521 0.52595458 0.70697687
-0.32704803 0.52515624 0.70590376
-0.32655086 0.52435790 0.70483065
-0.32605368 0.52355956 0.70375754
-0.32555650 0.52276122 0.70268442
-0.32505933 0.52196288 0.70161131
-0.32456215 0.52116454 0.70053820
-0.32406497 0.52036620 0.69946509
-0.32356780 0.51956785 0.69839198
-0.32307062 0.51876951 0.69731886
-0.32257344 0.51797117 0.69624575
-0.32207626 0.51717283 0.69517264
-0.32157909 0.51637449 0.69409953
-0.32108191 0.51557615 0.69302642
-0.32058473 0.51477781 0.69195330
-0.32008756 0.51397947 0.69088019
-0.31959038 0.51318113 0.68980708
-0.31909320 0.51238279 0.68873397
-0.31859603 0.51158445 0.68766086
-0.31809885 0.51078611 0.68658774
-0.31760167 0.50998777 0.68551463
-0.31710449 0.50918943 0.68444152
-0.31660732 0.50839109 0.68336841
-0.31611014 0.50759275 0.68229530
-0.31561296 0.50679441 0.68122218
-0.31511579 0.50599607 0.68014907
-0.31461861 0.50519773 0.67907596
-0.31412143 0.50439939 0.67800285
-0.31362425 0.50360105 0.67692974
-0.31312708 0.50280271 0.67585663
-0.31262990 0.50200437 0.67478351
-0.31213272 0.50120603 0.67371040
-0.31163555 0.50040769 0.67263729
-0.31113837 0.49960935 0.67156418
-0.31064119 0.49881101 0.67049107
-0.31014402 0.49801267 0.66941795
-0.30964684 0.49721433 0.66834484
-0.30914966 0.49641599 0.66727173
-0.30865248 0.49561765 0.66619862
-0.30815531 0.49481931 0.66512551
-0.30765813 0.49402097 0.66405239
-0.30716095 0.49322262 0.66297928
-0.30666378 0.49242428 0.66190617
-0.30616660 0.49162594 0.66083306
-0.30566942 0.49082760 0.65975995
-0.30517224 0.49002926 0.65868683
-0.30467507 0.48923092 0.65761372
-0.30417789 0.48843258 0.65654061
-0.30368071 0.48763424 0.65546750
-0.30318354 0.48683590 0.65439439
-0.30268636 0.48603756 0.65332127
-0.30218918 0.48523922 0.65224816
-0.30169201 0.48444088 0.65117505
-0.30119483 0.48364254 0.65010194
-0.30069765 0.48284420 0.64902883
-0.30020047 0.48204586 0.64795572
-0.29970330 0.48124752 0.64688260
-0.29920612 0.48044918 0.64580949
-0.35762670 0.55581064 0.75045165
-0.35711640 0.55501754 0.74938082
-0.35660609 0.55422444 0.74830998
-0.35609579 0.55343134 0.74723915
-0.35558548 0.55263825 0.74616831
-0.35507518 0.55184515 0.74509748
-0.35456487 0.55105205 0.74402664
-0.35405457 0.55025895 0.74295581
-0.35354426 0.54946586 0.74188497
-0.35303396 0.54867276 0.74081414
-0.35252365 0.54787966 0.73974330
-0.35201335 0.54708656 0.73867247
-0.35150304 0.54629347 0.73760163
-0.35099274 0.54550037 0.73653080
-0.35048244 0.54470727 0.73545996
-0.34997213 0.54391417 0.73438913
-0.34946183 0.54312108 0.73331830
-0.34895152 0.54232798 0.73224746
-0.34844122 0.54153488 0.73117663
-0.34793091 0.54074178 0.73010579
-0.34742061 0.53994869 0.72903496
-0.34691030 0.53915559 0.72796412
-0.34640000 0.53836249 0.72689329
-0.34588969 0.53756939 0.72582245
-0.34537939 0.53677630 0.72475162
-0.34486908 0.53598320 0.72368078
-0.34435878 0.53519010 0.72260995
-0.34384847 0.53439700 0.72153911
-0.34333817 0.53360391 0.72046828
-0.34282786 0.53281081 0.71939744
-0.34231756 0.53201771 0.71832661
-0.34180725 0.53122461 0.71725578
-0.34129695 0.53043152 0.71618494
-0.34078664 0.52963842 0.71511411
-0.34027634 0.52884532 0.71404327
-0.33976603 0.52805222 0.71297244
-0.33925573 0.52725913 0.71190160
-0.33874543 0.52646603 0.71083077
-0.33823512 0.52567293 0.70975993
-0.33772482 0.52487983 0.70868910
-0.33721451 0.52408674 0.70761826
-0.33670421 0.52329364 0.70654743
-0.33619390 0.52250054 0.70547659
-0.33568360 0.52170744 0.70440576
-0.33517329 0.52091435 0.70333492
-0.33466299 0.52012125 0.70226409
-0.33415268 0.51932815 0.70119325
-0.33364238 0.51853505 0.70012242
-0.33313207 0.51774196 0.69905159
-0.33262177 0.51694886 0.69798075
-0.33211146 0.51615576 0.69690992
-0.33160116 0.51536266 0.69583908
-0.33109085 0.51456957 0.69476825
-0.33058055 0.51377647 0.69369741
-0.33007024 0.51298337 0.69262658
-0.32955994 0.51219027 0.69155574
-0.32904963 0.51139718 0.69048491
-0.32853933 0.51060408 0.68941407
-0.32802902 0.50981098 0.68834324
-0.32751872 0.50901788 0.68727240
-0.32700841 0.50822479 0.68620157
-0.32649811 0.50743169 0.68513073
-0.32598781 0.50663859 0.68405990
-0.32547750 0.50584550 0.68298907
-0.32496720 0.50505240 0.68191823
-0.32445689 0.50425930 0.68084740
-0.32394659 0.50346620 0.67977656
-0.32343628 0.50267311 0.67870573
-0.32292598 0.50188001 0.67763489
-0.32241567 0.50108691 0.67656406
-0.32190537 0.50029381 0.67549322
-0.32139506 0.49950072 0.67442239
-0.32088476 0.49870762 0.67335155
-0.32037445 0.49791452 0.67228072
-0.31986415 0.49712142 0.67120988
-0.31935384 0.49632833 0.67013905
-0.31884354 0.49553523 0.66906821
-0.31833323 0.49474213 0.66799738
-0.31782293 0.49394903 0.66692655
-0.31731262 0.49315594 0.66585571
-0.31680232 0.49236284 0.66478488
-0.31629201 0.49156974 0.66371404
-0.31578171 0.49077664 0.66264321
-0.31527140 0.48998355 0.66157237
-0.31476110 0.48919045 0.66050154
-0.31425079 0.48839735 0.65943070
-0.31374049 0.48760425 0.65835987
-0.31323019 0.48681116 0.65728903
-0.31271988 0.48601806 0.65621820
-0.31220958 0.48522496 0.65514736
-0.31169927 0.48443186 0.65407653
-0.31118897 0.48363877 0.65300569
-0.31067866 0.48284567 0.65193486
-0.31016836 0.48205257 0.65086403
-0.30965805 0.48125947 0.64979319
-0.30914775 0.48046638 0.64872236
-0.30863744 0.47967328 0.64765152
-0.30812714 0.47888018 0.64658069
-0.30761683 0.47808708 0.64550985
-0.30710653 0.47729399 0.64443902
-0.36679075 0.55208044 0.74878017
-0.36626737 0.55129266 0.74771172
-0.36574399 0.55050489 0.74664327
-0.36522060 0.54971711 0.74557482
-0.36469722 0.54892934 0.74450637
-0.36417384 0.54814156 0.74343792
-0.36365046 0.54735379 0.74236947
-0.36312708 0.54656601 0.74130102
-0.36260370 0.54577824 0.74023257
-0.36208032 0.54499046 0.73916412
-0.36155694 0.54420269 0.73809567
-0.36103356 0.54341491 0.73702722
-0.36051017 0.54262714 0.73595877
-0.35998679 0.54183937 0.73489032
-0.35946341 0.54105159 0.73382187
-0.35894003 0.54026382 0.73275342
-0.35841665 0.53947604 0.73168497
-0.35789327 0.53868827 0.73061652
-0.35736989 0.53790049 0.72954807
-0.35684651 0.53711272 0.72847962
-0.35632313 0.53632494 0.72741117
-0.35579974 0.53553717 0.72634272
-0.35527636 0.53474939 0.72527428
-0.35475298 0.53396162 0.72420583
-0.35422960 0.53317384 0.72313738
-0.35370622 0.53238607 0.72206893
-0.35318284 0.53159829 0.72100048
-0.35265946 0.53081052 0.71993203
-0.35213608 0.53002274 0.71886358
-0.35161269 0.52923497 0.71779513
-0.35108931 0.52844719 0.71672668
-0.35056593 0.52765942 0.71565823
-0.35004255 0.52687164 0.71458978
-0.34951917 0.52608387 0.71352133
-0.34899579 0.52529610 0.71245288
-0.34847241 0.52450832 0.71138443
-0.34794903 0.52372055 0.71031598
-0.34742565 0.52293277 0.70924753
-0.34690226 0.52214500 0.70817908
-0.34637888 0.52135722 0.70711063
-0.34585550 0.52056945 0.70604218
-0.34533212 0.51978167 0.70497373
-0.34480874 0.51899390 0.70390528
-0.34428536 0.51820612 0.70283683
-0.34376198 0.51741835 0.70176838
-0.34323860 0.51663057 0.70069993
-0.34271522 0.51584280 0.69963148
-0.34219183 0.51505502 0.69856304
-0.34166845 0.51426725 0.69749459
-0.34114507 0.51347947 0.69642614
-0.34062169 0.51269170 0.69535769
-0.34009831 0.51190392 0.69428924
-0.33957493 0.51111615 0.69322079
-0.33905155 0.51032837 0.69215234
-0.33852817 0.50954060 0.69108389
-0.33800478 0.50875283 0.69001544
-0.33748140 0.50796505 0.68894699
-0.33695802 0.50717728 0.68787854
-0.33643464 0.50638950 0.68681009
-0.33591126 0.50560173 0.68574164
-0.33538788 0.50481395 0.68467319
-0.33486450 0.50402618 0.68360474
-0.33434112 0.50323840 0.68253629
-0.33381774 0.50245063 0.68146784
-0.33329435 0.50166285 0.68039939
-0.33277097 0.50087508 0.67933094
-0.33224759 0.50008730 0.67826249
-0.33172421 0.49929953 0.67719404
-0.33120083 0.49851175 0.67612559
-0.33067745 0.49772398 0.67505714
-0.33015407 0.49693620 0.67398869
-0.32963069 0.49614843 0.67292024
-0.32910730 0.49536065 0.67185179
-0.32858392 0.49457288 0.67078335
-0.32806054 0.49378510 0.66971490
-0.32753716 0.49299733 0.66864645
-0.32701378 0.49220955 0.66757800
-0.32649040 0.49142178 0.66650955
-0.32596702 0.49063401 0.66544110
-0.32544364 0.48984623 0.66437265
-0.32492026 0.48905846 0.66330420
-0.32439687 0.48827068 0.66223575
-0.32387349 0.48748291 0.66116730
-0.32335011 0.48669513 0.66009885
-0.32282673 0.48590736 0.65903040
-0.32230335 0.48511958 0.65796195
-0.32177997 0.48433181 0.65689350
-0.32125659 0.48354403 0.65582505
-0.32073321 0.48275626 0.65475660
-0.32020983 0.48196848 0.65368815
-0.31968644 0.48118071 0.65261970
-0.31916306 0.48039293 0.65155125
-0.31863968 0.47960516 0.65048280
-0.31811630 0.47881738 0.64941435
-0.31759292 0.47802961 0.64834590
-0.31706954 0.47724183 0.64727745
-0.31654616 0.47645406 0.64620900
-0.31602278 0.47566628 0.64514055
-0.31549939 0.47487851 0.64407211
-0.31497601 0.47409074 0.64300366
-0.37591786 0.54829465 0.74703329
-0.37538146 0.54751228 0.74596733
-0.37484505 0.54672991 0.74490138
-0.37430865 0.54594753 0.74383542
-0.37377224 0.54516516 0.74276946
-0.37323584 0.54438279 0.74170350
-0.37269943 0.54360042 0.74063755
-0.37216303 0.54281804 0.73957159
-0.37162662 0.54203567 0.73850563
-0.37109022 0.54125330 0.73743968
-0.37055381 0.54047092 0.73637372
-0.37001741 0.53968855 0.73530776
-0.36948100 0.53890618 0.73424181
-0.36894460 0.53812381 0.73317585
-0.36840820 0.53734143 0.73210989
-0.36787179 0.53655906 0.73104394
-0.36733539 0.53577669 0.72997798
-0.36679898 0.53499431 0.72891202
-0.36626258 0.53421194 0.72784606
-0.36572617 0.53342957 0.72678011
-0.36518977 0.53264720 0.72571415
-0.36465336 0.53186482 0.72464819
-0.36411696 0.53108245 0.72358224
-0.36358055 0.53030008 0.72251628
-0.36304415 0.52951771 0.72145032
-0.36250774 0.52873533 0.72038437
-0.36197134 0.52795296 0.71931841
-0.36143493 0.52717059 0.71825245
-0.36089853 0.52638821 0.71718649
-0.36036212 0.52560584 0.71612054
-0.35982572 0.52482347 0.71505458
-0.35928931 0.52404110 0.71398862
-0.35875291 0.52325872 0.71292267
-0.35821650 0.52247635 0.71185671
-0.35768010 0.52169398 0.71079075
-0.35714369 0.52091161 0.70972480
-0.35660729 0.52012923 0.70865884
-0.35607088 0.51934686 0.70759288
-0.35553448 0.51856449 0.70652693
-0.35499807 0.51778211 0.70546097
-0.35446167 0.51699974 0.70439501
-0.35392526 0.51621737 0.70332905
-0.35338886 0.51543500 0.70226310
-0.35285246 0.51465262 0.70119714
-0.35231605 0.51387025 0.70013118
-0.35177965 0.51308788 0.69906523
-0.35124324 0.51230550 0.69799927
-0.35070684 0.51152313 0.69693331
-0.35017043 0.51074076 0.69586736
-0.34963403 0.50995839 0.69480140
-0.34909762 0.50917601 0.69373544
-0.34856122 0.50839364 0.69266949
-0.34802481 0.50761127 0.69160353
-0.34748841 0.50682890 0.69053757
-0.34695200 0.50604652 0.68947161
-0.34641560 0.50526415 0.68840566
-0.34587919 0.50448178 0.68733970
-0.34534279 0.50369940 0.68627374
-0.34480638 0.50291703 0.68520779
-0.34426998 0.50213466 0.68414183
-0.34373357 0.50135229 0.68307587
-0.34319717 0.50056991 0.68200992
-0.34266076 0.49978754 0.68094396
-0.34212436 0.49900517 0.67987800
-0.34158795 0.49822280 0.67881204
-0.34105155 0.49744042 0.67774609
-0.34051514 0.49665805 0.67668013
-0.33997874 0.49587568 0.67561417
-0.33944233 0.49509330 0.67454822
-0.33890593 0.49431093 0.67348226
-0.33836953 0.49352856 0.67241630
-0.33783312 0.49274619 0.67135035
-0.33729672 0.49196381 0.67028439
-0.33676031 0.49118144 0.66921843
-0.33622391 0.49039907 0.66815248
-0.33568750 0.48961669 0.66708652
-0.33515110 0.48883432 0.66602056
-0.33461469 0.48805195 0.66495460
-0.33407829 0.48726958 0.66388865
-0.33354188 0.48648720 0.66282269
-0.33300548 0.48570483 0.66175673
-0.33246907 0.48492246 0.66069078
-0.33193267 0.48414009 0.65962482
-0.33139626 0.48335771 0.65855886
-0.33085986 0.48257534 0.65749291
-0.33032345 0.48179297 0.65642695
-0.32978705 0.48101059 0.65536099
-0.32925064 0.48022822 0.65429503
-0.32871424 0.47944585 0.65322908
-0.32817783 0.47866348 0.65216312
-0.32764143 0.47788110 0.65109716
-0.32710502 0.47709873 0.65003121
-0.32656862 0.47631636 0.64896525
-0.32603221 0.47553399 0.64789929
-0.32549581 0.47475161 0.64683334
-0.32495940 0.47396924 0.64576738
-0.32442300 0.47318687 0.64470142
-0.32388659 0.47240449 0.64363547
-0.32335019 0.47162212 0.64256951
-0.32281379 0.47083975 0.64150355
-0.38500713 0.54445366 0.74521120
-0.38445775 0.54367677 0.74414784
-0.38390838 0.54289988 0.74308448
-0.38335900 0.54212298 0.74202112
-0.38280963 0.54134609 0.74095777
-0.38226025 0.54056920 0.73989441
-0.38171088 0.53979231 0.73883105
-0.38116151 0.53901542 0.73776770
-0.38061213 0.53823852 0.73670434
-0.38006276 0.53746163 0.73564098
-0.37951338 0.53668474 0.73457763
-0.37896401 0.53590785 0.73351427
-0.37841463 0.53513096 0.73245091
-0.37786526 0.53435406 0.73138755
-0.37731588 0.53357717 0.73032420
-0.37676651 0.53280028 0.72926084
-0.37621713 0.53202339 0.72819748
-0.37566776 0.53124650 0.72713413
-0.37511839 0.53046960 0.72607077
-0.37456901 0.52969271 0.72500741
-0.37401964 0.52891582 0.72394406
-0.37347026 0.52813893 0.72288070
-0.37292089 0.52736204 0.72181734
-0.37237151 0.52658514 0.72075399
-0.37182214 0.52580825 0.71969063
-0.37127276 0.52503136 0.71862727
-0.37072339 0.52425447 0.71756391
-0.37017402 0.52347758 0.71650056
-0.36962464 0.52270068 0.71543720
-0.36907527 0.52192379 0.71437384
-0.36852589 0.52114690 0.71331049
-0.36797652 0.52037001 0.71224713
-0.36742714 0.51959312 0.71118377
-0.36687777 0.51881622 0.71012042
-0.36632839 0.51803933 0.70905706
-0.36577902 0.51726244 0.70799370
-0.36522965 0.51648555 0.70693034
-0.36468027 0.51570866 0.70586699
-0.36413090 0.51493176 0.70480363
-0.36358152 0.51415487 0.70374027
-0.36303215 0.51337798 0.70267692
-0.36248277 0.51260109 0.70161356
-0.36193340 0.51182420 0.70055020
-0.36138402 0.51104730 0.69948685
-0.36083465 0.51027041 0.69842349
-0.36028528 0.50949352 0.69736013
-0.35973590 0.50871663 0.69629678
-0.35918653 0.50793974 0.69523342
-0.35863715 0.50716284 0.69417006
-0.35808778 0.50638595 0.69310670
-0.35753840 0.50560906 0.69204335
-0.35698903 0.50483217 0.69097999
-0.35643965 0.50405528 0.68991663
-0.35589028 0.50327838 0.68885328
-0.35534090 0.50250149 0.68778992
-0.35479153 0.50172460 0.68672656
-0.35424216 0.50094771 0.68566321
-0.35369278 0.50017082 0.68459985
-0.35314341 0.49939392 0.68353649
-0.35259403 0.49861703 0.68247313
-0.35204466 0.49784014 0.68140978
-0.35149528 0.49706325 0.68034642
-0.35094591 0.49628636 0.67928306
-0.35039653 0.49550947 0.67821971
-0.34984716 0.49473257 0.67715635
-0.34929779 0.49395568 0.67609299
-0.34874841 0.49317879 0.67502964
-0.34819904 0.49240190 0.67396628
-0.34764966 0.49162501 0.67290292
-0.34710029 0.49084811 0.67183956
-0.34655091 0.49007122 0.67077621
-0.34600154 0.48929433 0.66971285
-0.34545216 0.48851744 0.66864949
-0.34490279 0.48774055 0.66758614
-0.34435342 0.48696365 0.66652278
-0.34380404 0.48618676 0.66545942
-0.34325467 0.48540987 0.66439607
-0.34270529 0.48463298 0.66333271
-0.34215592 0.48385609 0.66226935
-0.34160654 0.48307919 0.66120600
-0.34105717 0.48230230 0.66014264
-0.34050779 0.48152541 0.65907928
-0.33995842 0.48074852 0.65801592
-0.33940904 0.47997163 0.65695257
-0.33885967 0.47919473 0.65588921
-0.33831030 0.47841784 0.65482585
-0.33776092 0.47764095 0.65376250
-0.33721155 0.47686406 0.65269914
-0.33666217 0.47608717 0.65163578
-0.33611280 0.47531027 0.65057243
-0.33556342 0.47453338 0.64950907
-0.33501405 0.47375649 0.64844571
-0.33446467 0.47297960 0.64738235
-0.33391530 0.47220271 0.64631900
-0.33336593 0.47142581 0.64525564
-0.33281655 0.47064892 0.64419228
-0.33226718 0.46987203 0.64312893
-0.33171780 0.46909514 0.64206557
-0.33116843 0.46831825 0.64100221
-0.33061905 0.46754135 0.63993886
-0.39405762 0.54055785 0.74331407
-0.39349534 0.53978651 0.74225342
-0.39293305 0.53901518 0.74119277
-0.39237076 0.53824385 0.74013212
-0.39180847 0.53747251 0.73907147
-0.39124618 0.53670118 0.73801082
-0.39068389 0.53592985 0.73695017
-0.39012160 0.53515852 0.73588952
-0.38955931 0.53438718 0.73482887
-0.38899703 0.53361585 0.73376822
-0.38843474 0.53284452 0.73270757
-0.38787245 0.53207318 0.73164692
-0.38731016 0.53130185 0.73058627
-0.38674787 0.53053052 0.72952562
-0.38618558 0.52975919 0.72846497
-0.38562329 0.52898785 0.72740432
-0.38506100 0.52821652 0.72634367
-0.38449871 0.52744519 0.72528302
-0.38393643 0.52667385 0.72422237
-0.38337414 0.52590252 0.72316172
-0.38281185 0.52513119 0.72210107
-0.38224956 0.52435985 0.72104042
-0.38168727 0.52358852 0.71997977
-0.38112498 0.52281719 0.71891912
-0.38056269 0.52204586 0.71785847
-0.38000040 0.52127452 0.71679782
-0.37943812 0.52050319 0.71573717
-0.37887583 0.51973186 0.71467652
-0.37831354 0.51896052 0.71361587
-0.37775125 0.51818919 0.71255522
-0.37718896 0.51741786 0.71149457
-0.37662667 0.51664652 0.71043392
-0.37606438 0.51587519 0.70937327
-0.37550209 0.51510386 0.70831262
-0.37493981 0.51433253 0.70725197
-0.37437752 0.51356119 0.70619132
-0.37381523 0.51278986 0.70513067
-0.37325294 0.51201853 0.70407002
-0.37269065 0.51124719 0.70300937
-0.37212836 0.51047586 0.70194872
-0.37156607 0.50970453 0.70088807
-0.37100378 0.50893320 0.69982742
-0.37044149 0.50816186 0.69876677
-0.36987921 0.50739053 0.69770612
-0.36931692 0.50661920 0.69664547
-0.36875463 0.50584786 0.69558482
-0.36819234 0.50507653 0.69452417
-0.36763005 0.50430520 0.69346352
-0.36706776 0.50353386 0.69240287
-0.36650547 0.50276253 0.69134222
-0.36594318 0.50199120 0.69028157
-0.36538090 0.50121987 0.68922092
-0.36481861 0.50044853 0.68816027
-0.36425632 0.49967720 0.68709962
-0.36369403 0.49890587 0.68603897
-0.36313174 0.49813453 0.68497832
-0.36256945 0.49736320 0.68391767
-0.36200716 0.49659187 0.68285702
-0.36144487 0.49582054 0.68179637
-0.36088258 0.49504920 0.68073572
-0.36032030 0.49427787 0.67967507
-0.35975801 0.49350654 0.67861442
-0.35919572 0.49273520 0.67755377
-0.35863343 0.49196387 0.67649312
-0.35807114 0.49119254 0.67543247
-0.35750885 0.49042120 0.67437182
-0.35694656 0.48964987 0.67331117
-0.35638427 0.48887854 0.67225052
-0.35582199 0.48810721 0.67118987
-0.35525970 0.48733587 0.67012922
-0.35469741 0.48656454 0.66906857
-0.35413512 0.48579321 0.66800792
-0.35357283 0.48502187 0.66694727
-0.35301054 0.48425054 0.66588662
-0.35244825 0.48347921 0.66482597
-0.35188596 0.48270788 0.66376532
-0.35132367 0.48193654 0.66270467
-0.35076139 0.48116521 0.66164402
-0.35019910 0.48039388 0.66058337
-0.34963681 0.47962254 0.65952272
-0.34907452 0.47885121 0.65846207
-0.34851223 0.47807988 0.65740142
-0.34794994 0.47730854 0.65634077
-0.34738765 0.47653721 0.65528012
-0.34682536 0.47576588 0.65421947
-0.34626308 0.47499455 0.65315882
-0.34570079 0.47422321 0.65209817
-0.34513850 0.47345188 0.65103752
-0.34457621 0.47268055 0.64997687
-0.34401392 0.47190921 0.64891623
-0.34345163 0.47113788 0.64785558
-0.34288934 0.47036655 0.64679493
-0.34232705 0.46959521 0.64573428
-0.34176476 0.46882388 0.64467363
-0.34120248 0.46805255 0.64361298
-0.34064019 0.46728122 0.64255233
-0.34007790 0.46650988 0.64149168
-0.33951561 0.46573855 0.64043103
-0.33895332 0.46496722 0.63937038
-0.33839103 0.46419588 0.63830973
-0.40306845 0.53660761 0.74134210
-0.40249330 0.53584191 0.74028426
-0.40191815 0.53507621 0.73922642
-0.40134301 0.53431052 0.73816859
-0.40076786 0.53354482 0.73711075
-0.40019271 0.53277912 0.73605292
-0.39961757 0.53201343 0.73499508
-0.39904242 0.53124773 0.73393724
-0.39846727 0.53048204 0.73287941
-0.39789213 0.52971634 0.73182157
-0.39731698 0.52895064 0.73076374
-0.39674183 0.52818495 0.72970590
-0.39616669 0.52741925 0.72864806
-0.39559154 0.52665355 0.72759023
-0.39501639 0.52588786 0.72653239
-0.39444125 0.52512216 0.72547456
-0.39386610 0.52435647 0.72441672
-0.39329096 0.52359077 0.72335888
-0.39271581 0.52282507 0.72230105
-0.39214066 0.52205938 0.72124321
-0.39156552 0.52129368 0.72018538
-0.39099037 0.52052798 0.71912754
-0.39041522 0.51976229 0.71806970
-0.38984008 0.51899659 0.71701187
-0.38926493 0.51823090 0.71595403
-0.38868978 0.51746520 0.71489620
-0.38811464 0.51669950 0.71383836
-0.38753949 0.51593381 0.71278052
-0.38696434 0.51516811 0.71172269
-0.38638920 0.51440241 0.71066485
-0.38581405 0.51363672 0.70960701
-0.38523890 0.51287102 0.70854918
-0.38466376 0.51210533 0.70749134
-0.38408861 0.51133963 0.70643351
-0.38351346 0.51057393 0.70537567
-0.38293832 0.50980824 0.70431783
-0.38236317 0.50904254 0.70326000
-0.38178802 0.50827684 0.70220216
-0.38121288 0.50751115 0.70114433
-0.38063773 0.50674545 0.70008649
-0.38006258 0.50597976 0.69902865
-0.37948744 0.50521406 0.69797082
-0.37891229 0.50444836 0.69691298
-0.37833715 0.50368267 0.69585515
-0.37776200 0.50291697 0.69479731
-0.37718685 0.50215127 0.69373947
-0.37661171 0.50138558 0.69268164
-0.37603656 0.50061988 0.69162380
-0.37546141 0.49985419 0.69056597
-0.37488627 0.49908849 0.68950813
-0.37431112 0.49832279 0.68845029
-0.37373597 0.49755710 0.68739246
-0.37316083 0.49679140 0.68633462
-0.37258568 0.49602570 0.68527679
-0.37201053 0.49526001 0.68421895
-0.37143539 0.49449431 0.68316111
-0.37086024 0.49372861 0.68210328
-0.37028509 0.49296292 0.68104544
-0.36970995 0.49219722 0.67998760
-0.36913480 0.49143153 0.67892977
-0.36855965 0.49066583 0.67787193
-0.36798451 0.48990013 0.67681410
-0.36740936 0.48913444 0.67575626
-0.36683421 0.48836874 0.67469842
-0.36625907 0.48760304 0.67364059
-0.36568392 0.48683735 0.67258275
-0.36510877 0.48607165 0.67152492
-0.36453363 0.48530596 0.67046708
-0.36395848 0.48454026 0.66940924
-0.36338334 0.48377456 0.66835141
-0.36280819 0.48300887 0.66729357
-0.36223304 0.48224317 0.66623574
-0.36165790 0.48147747 0.66517790
-0.36108275 0.48071178 0.66412006
-0.36050760 0.47994608 0.66306223
-0.35993246 0.47918039 0.66200439
-0.35935731 0.47841469 0.66094656
-0.35878216 0.47764899 0.65988872
-0.35820702 0.47688330 0.65883088
-0.35763187 0.47611760 0.65777305
-0.35705672 0.47535190 0.65671521
-0.35648158 0.47458621 0.65565738
-0.35590643 0.47382051 0.65459954
-0.35533128 0.47305482 0.65354170
-0.35475614 0.47228912 0.65248387
-0.35418099 0.47152342 0.65142603
-0.35360584 0.47075773 0.65036819
-0.35303070 0.46999203 0.64931036
-0.35245555 0.46922633 0.64825252
-0.35188040 0.46846064 0.64719469
-0.35130526 0.46769494 0.64613685
-0.35073011 0.46692925 0.64507901
-0.35015496 0.46616355 0.64402118
-0.34957982 0.46539785 0.64296334
-0.34900467 0.46463216 0.64190551
-0.34842953 0.46386646 0.64084767
-0.34785438 0.46310076 0.63978983
-0.34727923 0.46233507 0.63873200
-0.34670409 0.46156937 0.63767416
-0.34612894 0.46080368 0.63661633
-0.41203868 0.53260334 0.73929548
-0.41145074 0.53184335 0.73824057
-0.41086279 0.53108337 0.73718565
-0.41027484 0.53032339 0.73613073
-0.40968690 0.52956341 0.73507582
-0.40909895 0.52880342 0.73402090
-0.40851101 0.52804344 0.73296599
-0.40792306 0.52728346 0.73191107
-0.40733511 0.52652348 0.73085616
-0.40674717 0.52576349 0.72980124
-0.40615922 0.52500351 0.72874632
-0.40557127 0.52424353 0.72769141
-0.40498333 0.52348355 0.72663649
-0.40439538 0.52272356 0.72558158
-0.40380743 0.52196358 0.72452666
-0.40321949 0.52120360 0.72347175
-0.40263154 0.52044362 0.72241683
-0.40204360 0.51968363 0.72136191
-0.40145565 0.51892365 0.72030700
-0.40086770 0.51816367 0.71925208
-0.40027976 0.51740369 0.71819717
-0.39969181 0.51664370 0.71714225
-0.39910386 0.51588372 0.71608734
-0.39851592 0.51512374 0.71503242
-0.39792797 0.51436376 0.71397750
-0.39734002 0.51360377 0.71292259
-0.39675208 0.51284379 0.71186767
-0.39616413 0.51208381 0.71081276
-0.39557619 0.51132383 0.70975784
-0.39498824 0.51056384 0.70870293
-0.39440029 0.50980386 0.70764801
-0.39381235 0.50904388 0.70659309
-0.39322440 0.50828390 0.70553818
-0.39263645 0.50752391 0.70448326
-0.39204851 0.50676393 0.70342835
-0.39146056 0.50600395 0.70237343
-0.39087261 0.50524397 0.70131852
-0.39028467 0.50448398 0.70026360
-0.38969672 0.50372400 0.69920868
-0.38910878 0.50296402 0.69815377
-0.38852083 0.50220404 0.69709885
-0.38793288 0.50144405 0.69604394
-0.38734494 0.50068407 0.69498902
-0.38675699 0.49992409 0.69393411
-0.38616904 0.49916411 0.69287919
-0.38558110 0.49840412 0.69182427
-0.38499315 0.49764414 0.69076936
-0.38440520 0.49688416 0.68971444
-0.38381726 0.49612418 0.68865953
-0.38322931 0.49536419 0.68760461
-0.38264137 0.49460421 0.68654970
-0.38205342 0.49384423 0.68549478
-0.38146547 0.49308425 0.68443986
-0.38087753 0.49232426 0.68338495
-0.38028958 0.49156428 0.68233003
-0.37970163 0.49080430 0.68127512
-0.37911369 0.49004432 0.68022020
-0.37852574 0.48928433 0.67916529
-0.37793780 0.48852435 0.67811037
-0.37734985 0.48776437 0.67705545
-0.37676190 0.48700439 0.67600054
-0.37617396 0.48624440 0.67494562
-0.37558601 0.48548442 0.67389071
-0.37499806 0.48472444 0.67283579
-0.37441012 0.48396446 0.67178088
-0.37382217 0.48320447 0.67072596
-0.37323422 0.48244449 0.66967104
-0.37264628 0.48168451 0.66861613
-0.37205833 0.48092453 0.66756121
-0.37147039 0.48016454 0.66650630
-0.37088244 0.47940456 0.66545138
-0.37029449 0.47864458 0.66439647
-0.36970655 0.47788460 0.66334155
-0.36911860 0.47712461 0.66228663
-0.36853065 0.47636463 0.66123172
-0.36794271 0.47560465 0.66017680
-0.36735476 0.47484467 0.65912189
-0.36676681 0.47408468 0.65806697
-0.36617887 0.47332470 0.65701206
-0.36559092 0.47256472 0.65595714
-0.36500298 0.47180474 0.65490222
-0.36441503 0.47104475 0.65384731
-0.36382708 0.47028477 0.65279239
-0.36323914 0.46952479 0.65173748
-0.36265119 0.46876481 0.65068256
-0.36206324 0.46800482 0.64962765
-0.36147530 0.46724484 0.64857273
-0.36088735 0.46648486 0.64751781
-0.36029940 0.46572488 0.64646290
-0.35971146 0.46496489 0.64540798
-0.35912351 0.46420491 0.64435307
-0.35853557 0.46344493 0.64329815
-0.35794762 0.46268495 0.64224324
-0.35735967 0.46192496 0.64118832
-0.35677173 0.46116498 0.64013340
-0.35618378 0.46040500 0.63907849
-0.35559583 0.45964502 0.63802357
-0.35500789 0.45888503 0.63696866
-0.35441994 0.45812505 0.63591374
-0.35383199 0.45736507 0.63485883
-0.42096743 0.52854544 0.73717443
-0.42036675 0.52779125 0.73612254
-0.41976606 0.52703705 0.73507065
-0.41916537 0.52628286 0.73401876
-0.41856469 0.52552867 0.73296687
-0.41796400 0.52477448 0.73191498
-0.41736331 0.52402029 0.73086309
-0.41676262 0.52326609 0.72981120
-0.41616194 0.52251190 0.72875932
-0.41556125 0.52175771 0.72770743
-0.41496056 0.52100352 0.72665554
-0.41435988 0.52024933 0.72560365
-0.41375919 0.51949513 0.72455176
-0.41315850 0.51874094 0.72349987
-0.41255782 0.51798675 0.72244798
-0.41195713 0.51723256 0.72139609
-0.41135644 0.51647836 0.72034420
-0.41075576 0.51572417 0.71929231
-0.41015507 0.51496998 0.71824042
-0.40955438 0.51421579 0.71718854
-0.40895369 0.51346160 0.71613665
-0.40835301 0.51270740 0.71508476
-0.40775232 0.51195321 0.71403287
-0.40715163 0.51119902 0.71298098
-0.40655095 0.51044483 0.71192909
-0.40595026 0.50969063 0.71087720
-0.40534957 0.50893644 0.70982531
-0.40474889 0.50818225 0.70877342
-0.40414820 0.50742806 0.70772153
-0.40354751 0.50667387 0.70666964
-0.40294682 0.50591967 0.70561775
-0.40234614 0.50516548 0.70456587
-0.40174545 0.50441129 0.70351398
-0.40114476 0.50365710 0.70246209
-0.40054408 0.50290290 0.70141020
-0.39994339 0.50214871 0.70035831
-0.39934270 0.50139452 0.69930642
-0.39874202 0.50064033 0.69825453
-0.39814133 0.49988614 0.69720264
-0.39754064 0.49913194 0.69615075
-0.39693995 0.49837775 0.69509886
-0.39633927 0.49762356 0.69404697
-0.39573858 0.49686937 0.69299508
-0.39513789 0.49611517 0.69194320
-0.39453721 0.49536098 0.69089131
-0.39393652 0.49460679 0.68983942
-0.39333583 0.49385260 0.68878753
-0.39273515 0.49309841 0.68773564
-0.39213446 0.49234421 0.68668375
-0.39153377 0.49159002 0.68563186
-0.39093309 0.49083583 0.68457997
-0.39033240 0.49008164 0.68352808
-0.38973171 0.48932744 0.68247619
-0.38913102 0.48857325 0.68142430
-0.38853034 0.48781906 0.68037242
-0.38792965 0.48706487 0.67932053
-0.38732896 0.48631068 0.67826864
-0.38672828 0.48555648 0.67721675
-0.38612759 0.48480229 0.67616486
-0.38552690 0.48404810 0.67511297
-0.38492622 0.48329391 0.67406108
-0.38432553 0.48253971 0.67300919
-0.38372484 0.48178552 0.67195730
-0.38312415 0.48103133 0.67090541
-0.38252347 0.48027714 0.66985352
-0.38192278 0.47952295 0.66880163
-0.38132209 0.47876875 0.66774975
-0.38072141 0.47801456 0.66669786
-0.38012072 0.47726037 0.66564597
-0.37952003 0.47650618 0.66459408
-0.37891935 0.47575198 0.66354219
-0.37831866 0.47499779 0.66249030
-0.37771797 0.47424360 0.66143841
-0.37711728 0.47348941 0.66038652
-0.37651660 0.47273522 0.65933463
-0.37591591 0.47198102 0.65828274
-0.37531522 0.47122683 0.65723085
-0.37471454 0.47047264 0.65617896
-0.37411385 0.46971845 0.65512708
-0.37351316 0.46896426 0.65407519
-0.37291248 0.46821006 0.65302330
-0.37231179 0.46745587 0.65197141
-0.37171110 0.46670168 0.65091952
-0.37111042 0.46594749 0.64986763
-0.37050973 0.46519329 0.64881574
-0.36990904 0.46443910 0.64776385
-0.36930835 0.46368491 0.64671196
-0.36870767 0.46293072 0.64566007
-0.36810698 0.46217653 0.64460818
-0.36750629 0.46142233 0.64355630
-0.36690561 0.46066814 0.64250441
-0.36630492 0.45991395 0.64145252
-0.36570423 0.45915976 0.64040063
-0.36510355 0.45840556 0.63934874
-0.36450286 0.45765137 0.63829685
-0.36390217 0.45689718 0.63724496
